440142.90	1148625.90	1.5	
440241.90	1148625.90	3.6	
440139.90	1148626.20	1.8	
440140.20	1148626.20	1.7	
440140.50	1148626.20	1.7	
440140.80	1148626.20	1.7	
440141.10	1148626.20	1.7	
440141.40	1148626.20	1.7	
440241.90	1148626.20	3.5	
440138.40	1148626.50	1.9	
440138.70	1148626.50	1.9	
440139.00	1148626.50	1.9	
440139.60	1148626.50	1.9	
440241.90	1148626.50	3.6	
440241.90	1148626.80	3.6	
440241.90	1148627.10	3.6	
440242.20	1148627.10	3.6	
440242.20	1148627.40	3.5	
440242.20	1148627.70	3.4	
440242.20	1148628.00	3.3	
440242.20	1148628.30	3.2	
440242.20	1148628.60	3.2	
440242.20	1148628.90	3.2	
440242.20	1148629.20	3.1	
440242.20	1148629.50	3.1	
440242.20	1148629.80	3.1	
440242.20	1148630.10	3.0	
440242.20	1148630.40	2.9	
440241.90	1148630.70	2.8	
440242.20	1148630.70	2.8	
440241.90	1148631.00	2.8	
440241.90	1148631.30	2.8	
440241.90	1148631.60	2.7	
440241.90	1148631.90	2.7	
440241.90	1148632.20	2.7	
440241.90	1148632.50	2.6	
440242.20	1148632.50	2.6	
440242.20	1148632.80	2.6	
440242.20	1148633.10	2.5	
440141.40	1148633.40	0.8	
440141.70	1148633.40	0.8	
440242.20	1148633.40	2.4	
440138.10	1148633.70	0.8	
440138.40	1148633.70	0.8	
440138.70	1148633.70	0.8	
440139.00	1148633.70	0.8	
440139.30	1148633.70	0.8	
440139.60	1148633.70	0.8	
440139.90	1148633.70	0.8	
440140.20	1148633.70	0.8	
440140.50	1148633.70	0.8	
440140.80	1148633.70	0.8	
440141.10	1148633.70	0.8	
440141.40	1148633.70	0.8	
440242.20	1148633.70	2.4	
440242.20	1148634.00	2.3	
440241.90	1148634.30	2.3	
440316.30	1148505.00	16.1	
440316.30	1148505.30	16.1	
440316.60	1148505.30	16.1	
440316.90	1148505.90	16.0	
440317.20	1148506.20	15.8	
440317.50	1148506.50	15.4	
440317.50	1148506.80	15.4	
440317.80	1148506.80	15.2	
440317.80	1148507.10	15.0	
440317.80	1148507.40	14.9	
440318.10	1148507.70	15.0	
440318.10	1148508.00	14.8	
440318.10	1148508.30	14.8	
440318.40	1148508.30	14.7	
440318.40	1148508.60	14.7	
440318.40	1148508.90	14.6	
440318.40	1148509.20	14.5	
440318.70	1148509.20	14.5	
440318.70	1148509.50	14.5	
440318.70	1148509.80	14.5	
440318.70	1148510.10	14.6	
440318.70	1148510.40	14.6	
440318.70	1148510.70	14.6	
440318.70	1148511.00	14.6	
440319.00	1148511.00	14.5	
440319.00	1148511.30	14.5	
440318.70	1148511.60	14.4	
440319.00	1148511.60	14.5	
440318.70	1148511.90	14.4	
440318.70	1148512.20	14.4	
440318.70	1148512.50	14.4	
440318.70	1148512.80	14.4	
440316.30	1148513.10	14.3	
440318.70	1148513.10	14.4	
440316.30	1148513.40	14.3	
440318.70	1148513.40	14.4	
440316.30	1148513.70	14.3	
440318.70	1148513.70	14.4	
440316.30	1148514.00	14.4	
440318.40	1148514.00	14.4	
440318.70	1148514.00	14.4	
440316.30	1148514.30	14.4	
440318.40	1148514.30	14.4	
440316.30	1148514.60	14.3	
440318.40	1148514.60	14.4	
440316.60	1148514.90	14.3	
440318.40	1148514.90	14.4	
440316.60	1148515.20	14.3	
440318.40	1148515.20	14.3	
440316.60	1148515.50	14.3	
440318.10	1148515.50	14.2	
440318.40	1148515.50	14.2	
440316.60	1148515.80	14.3	
440318.10	1148515.80	14.2	
440316.60	1148516.10	14.3	
440318.10	1148516.10	14.2	
440316.60	1148516.40	14.3	
440318.10	1148516.40	14.2	
440316.90	1148516.70	14.3	
440318.10	1148516.70	14.2	
440316.90	1148517.00	14.3	
440318.10	1148517.00	14.2	
440294.40	1148517.30	14.0	
440316.90	1148517.30	14.3	
440318.10	1148517.30	14.2	
440294.40	1148517.60	14.0	
440294.70	1148517.60	14.0	
440316.90	1148517.60	14.1	
440318.10	1148517.60	14.2	
440294.70	1148517.90	14.0	
440295.00	1148517.90	14.0	
440316.90	1148517.90	14.0	
440318.10	1148517.90	14.2	
440295.00	1148518.20	14.0	
440295.30	1148518.20	14.0	
440316.90	1148518.20	14.0	
440318.10	1148518.20	14.2	
440295.30	1148518.50	14.0	
440317.20	1148518.50	14.0	
440318.10	1148518.50	14.2	
440295.30	1148518.80	14.0	
440295.60	1148518.80	14.0	
440317.20	1148518.80	14.0	
440318.10	1148518.80	14.1	
440341.50	1148518.80	15.5	
440295.60	1148519.10	14.0	
440317.20	1148519.10	14.0	
440318.10	1148519.10	14.1	
440341.20	1148519.10	15.5	
440341.50	1148519.10	15.5	
440295.60	1148519.40	14.0	
440295.90	1148519.40	14.0	
440317.20	1148519.40	14.0	
440318.10	1148519.40	14.0	
440318.40	1148519.40	14.0	
440341.20	1148519.40	15.5	
440295.90	1148519.70	14.0	
440317.20	1148519.70	14.1	
440318.40	1148519.70	13.9	
440341.20	1148519.70	15.5	
440295.90	1148520.00	13.9	
440317.50	1148520.00	14.1	
440318.40	1148520.00	13.9	
440341.20	1148520.00	15.5	
440296.20	1148520.30	13.8	
440317.50	1148520.30	14.0	
440318.40	1148520.30	13.9	
440296.20	1148520.60	13.7	
440317.50	1148520.60	14.0	
440318.40	1148520.60	13.9	
440340.90	1148520.60	15.4	
440296.20	1148520.90	13.6	
440317.50	1148520.90	13.9	
440318.40	1148520.90	13.9	
440340.60	1148520.90	15.4	
440340.90	1148520.90	15.4	
440296.50	1148521.20	13.6	
440317.50	1148521.20	13.9	
440318.40	1148521.20	13.9	
440340.60	1148521.20	15.4	
440296.50	1148521.50	13.5	
440317.50	1148521.50	13.8	
440318.40	1148521.50	13.9	
440340.60	1148521.50	15.4	
440296.50	1148521.80	13.5	
440317.50	1148521.80	13.9	
440318.40	1148521.80	13.9	
440340.30	1148521.80	15.4	
440296.50	1148522.10	13.5	
440317.80	1148522.10	13.8	
440318.40	1148522.10	13.9	
440340.00	1148522.10	15.4	
440340.30	1148522.10	15.4	
440296.50	1148522.40	13.5	
440296.80	1148522.40	13.5	
440317.80	1148522.40	13.8	
440318.40	1148522.40	13.8	
440340.00	1148522.40	15.4	
440296.80	1148522.70	13.5	
440317.80	1148522.70	13.8	
440318.40	1148522.70	13.8	
440340.00	1148522.70	15.4	
440296.80	1148523.00	13.5	
440317.80	1148523.00	13.7	
440318.40	1148523.00	13.7	
440340.00	1148523.00	15.4	
440296.80	1148523.30	13.4	
440317.80	1148523.30	13.7	
440318.40	1148523.30	13.7	
440340.00	1148523.30	15.4	
440296.80	1148523.60	13.3	
440317.80	1148523.60	13.6	
440318.40	1148523.60	13.6	
440340.00	1148523.60	15.4	
440296.80	1148523.90	13.3	
440317.80	1148523.90	13.6	
440318.40	1148523.90	13.7	
440339.70	1148523.90	15.3	
440340.00	1148523.90	15.3	
440297.10	1148524.20	13.1	
440317.80	1148524.20	13.6	
440318.40	1148524.20	13.7	
440339.70	1148524.20	15.3	
440297.10	1148524.50	13.0	
440317.80	1148524.50	13.5	
440318.40	1148524.50	13.7	
440339.70	1148524.50	15.3	
440297.10	1148524.80	13.0	
440317.80	1148524.80	13.5	
440318.40	1148524.80	13.7	
440339.70	1148524.80	15.3	
440297.10	1148525.10	12.8	
440317.80	1148525.10	13.5	
440318.40	1148525.10	13.7	
440339.70	1148525.10	15.3	
440297.10	1148525.40	12.8	
440317.80	1148525.40	13.5	
440339.70	1148525.40	15.3	
440297.10	1148525.70	12.8	
440317.80	1148525.70	13.4	
440339.70	1148525.70	15.4	
440340.00	1148525.70	15.4	
440297.10	1148526.00	12.7	
440317.50	1148526.00	13.4	
440317.80	1148526.00	13.4	
440340.00	1148526.00	15.4	
440297.10	1148526.30	12.7	
440317.50	1148526.30	13.4	
440340.00	1148526.30	15.4	
440297.40	1148526.60	12.7	
440317.50	1148526.60	13.4	
440340.00	1148526.60	15.4	
440297.40	1148526.90	12.7	
440340.00	1148526.90	15.4	
440355.90	1148526.90	16.1	
440297.40	1148527.20	12.8	
440317.50	1148527.20	13.8	
440340.00	1148527.20	15.3	
440355.90	1148527.20	16.0	
440356.20	1148527.20	15.9	
440297.40	1148527.50	12.8	
440340.00	1148527.50	15.3	
440356.20	1148527.50	15.9	
440297.70	1148527.80	12.8	
440317.50	1148527.80	14.5	
440318.40	1148527.80	14.6	
440340.00	1148527.80	15.3	
440356.20	1148527.80	15.9	
440297.70	1148528.10	12.8	
440318.40	1148528.10	14.6	
440340.00	1148528.10	15.3	
440356.20	1148528.10	15.8	
440356.50	1148528.10	15.8	
440297.70	1148528.40	12.8	
440317.20	1148528.40	14.5	
440318.40	1148528.40	14.6	
440340.00	1148528.40	15.2	
440356.50	1148528.40	15.8	
440297.70	1148528.70	12.8	
440298.00	1148528.70	12.8	
440317.20	1148528.70	14.6	
440318.40	1148528.70	14.7	
440318.70	1148528.70	14.6	
440340.30	1148528.70	15.2	
440298.00	1148529.00	12.7	
440317.20	1148529.00	14.5	
440318.70	1148529.00	14.7	
440340.30	1148529.00	15.2	
440356.50	1148529.00	15.7	
440298.00	1148529.30	12.7	
440317.20	1148529.30	14.5	
440340.30	1148529.30	15.2	
440356.50	1148529.30	15.7	
440298.00	1148529.60	12.7	
440316.90	1148529.60	14.5	
440318.70	1148529.60	14.6	
440340.30	1148529.60	15.2	
440356.50	1148529.60	15.8	
440298.30	1148529.90	12.7	
440316.90	1148529.90	14.6	
440318.70	1148529.90	14.6	
440340.30	1148529.90	15.2	
440356.50	1148529.90	15.8	
440298.30	1148530.20	12.7	
440316.90	1148530.20	14.6	
440318.70	1148530.20	14.6	
440340.30	1148530.20	15.2	
440356.50	1148530.20	15.8	
440298.30	1148530.50	12.7	
440316.90	1148530.50	14.6	
440318.70	1148530.50	14.6	
440340.30	1148530.50	15.3	
440356.50	1148530.50	15.8	
440298.30	1148530.80	12.7	
440298.60	1148530.80	12.8	
440316.60	1148530.80	14.6	
440318.70	1148530.80	14.6	
440340.60	1148530.80	15.3	
440356.20	1148530.80	15.7	
440356.50	1148530.80	15.7	
440298.60	1148531.10	12.7	
440316.60	1148531.10	14.7	
440318.70	1148531.10	14.6	
440340.60	1148531.10	15.3	
440349.30	1148531.10	15.4	
440349.60	1148531.10	15.4	
440356.20	1148531.10	15.7	
440298.60	1148531.40	12.8	
440316.60	1148531.40	14.7	
440318.70	1148531.40	14.6	
440340.60	1148531.40	15.3	
440346.90	1148531.40	14.6	
440347.20	1148531.40	15.1	
440347.80	1148531.40	15.1	
440348.10	1148531.40	15.1	
440348.40	1148531.40	15.2	
440348.70	1148531.40	15.2	
440349.00	1148531.40	15.2	
440349.30	1148531.40	15.2	
440356.20	1148531.40	15.7	
440298.60	1148531.70	12.7	
440316.60	1148531.70	14.7	
440340.60	1148531.70	15.3	
440344.50	1148531.70	14.5	
440344.80	1148531.70	14.5	
440345.10	1148531.70	14.5	
440345.40	1148531.70	14.5	
440345.70	1148531.70	14.5	
440346.00	1148531.70	14.5	
440346.30	1148531.70	14.5	
440356.20	1148531.70	15.8	
440298.90	1148532.00	12.7	
440305.20	1148532.00	12.8	
440305.50	1148532.00	12.8	
440305.80	1148532.00	12.8	
440306.10	1148532.00	12.8	
440306.40	1148532.00	12.8	
440306.70	1148532.00	12.8	
440307.00	1148532.00	12.8	
440307.30	1148532.00	12.8	
440307.60	1148532.00	12.8	
440307.90	1148532.00	12.9	
440308.20	1148532.00	12.8	
440308.50	1148532.00	12.9	
440308.80	1148532.00	12.9	
440316.30	1148532.00	14.7	
440318.70	1148532.00	14.6	
440340.60	1148532.00	15.3	
440342.10	1148532.00	15.1	
440343.90	1148532.00	14.5	
440344.20	1148532.00	14.5	
440298.90	1148532.30	12.7	
440299.80	1148532.30	12.6	
440300.10	1148532.30	12.6	
440300.40	1148532.30	12.6	
440300.70	1148532.30	12.7	
440301.00	1148532.30	12.7	
440301.30	1148532.30	12.7	
440301.60	1148532.30	12.7	
440301.90	1148532.30	12.7	
440302.20	1148532.30	12.7	
440302.50	1148532.30	12.8	
440302.80	1148532.30	12.9	
440303.10	1148532.30	12.9	
440303.40	1148532.30	12.9	
440303.70	1148532.30	12.9	
440304.00	1148532.30	12.9	
440304.30	1148532.30	12.9	
440304.60	1148532.30	12.8	
440304.90	1148532.30	12.9	
440308.80	1148532.30	12.9	
440309.10	1148532.30	12.9	
440309.40	1148532.30	12.9	
440309.70	1148532.30	12.9	
440310.00	1148532.30	12.9	
440310.30	1148532.30	13.0	
440310.60	1148532.30	13.0	
440310.90	1148532.30	13.4	
440311.50	1148532.30	13.6	
440312.10	1148532.30	13.8	
440312.40	1148532.30	13.9	
440312.70	1148532.30	13.9	
440313.00	1148532.30	14.1	
440313.30	1148532.30	14.2	
440313.60	1148532.30	14.3	
440313.90	1148532.30	14.3	
440314.20	1148532.30	14.3	
440314.50	1148532.30	14.4	
440314.80	1148532.30	14.4	
440315.70	1148532.30	14.6	
440316.00	1148532.30	14.6	
440316.30	1148532.30	14.6	
440316.60	1148532.30	14.5	
440316.90	1148532.30	14.6	
440317.50	1148532.30	14.6	
440318.10	1148532.30	14.5	
440318.40	1148532.30	14.5	
440318.70	1148532.30	14.5	
440319.00	1148532.30	14.5	
440319.30	1148532.30	14.5	
440319.60	1148532.30	14.5	
440319.90	1148532.30	14.5	
440320.20	1148532.30	14.5	
440320.50	1148532.30	14.5	
440320.80	1148532.30	14.5	
440321.10	1148532.30	14.5	
440321.40	1148532.30	14.6	
440321.70	1148532.30	14.6	
440322.00	1148532.30	14.6	
440322.30	1148532.30	14.6	
440322.60	1148532.30	14.6	
440322.90	1148532.30	14.5	
440323.20	1148532.30	14.6	
440323.50	1148532.30	14.6	
440323.80	1148532.30	14.6	
440324.10	1148532.30	14.6	
440338.20	1148532.30	15.1	
440338.50	1148532.30	15.1	
440338.80	1148532.30	15.1	
440339.10	1148532.30	15.1	
440339.40	1148532.30	15.1	
440339.70	1148532.30	15.1	
440340.00	1148532.30	15.1	
440340.30	1148532.30	15.1	
440340.60	1148532.30	15.2	
440340.90	1148532.30	15.1	
440341.20	1148532.30	15.1	
440341.50	1148532.30	15.1	
440341.80	1148532.30	15.2	
440355.90	1148532.30	15.8	
440298.60	1148532.60	12.6	
440298.90	1148532.60	12.6	
440299.20	1148532.60	12.7	
440299.50	1148532.60	12.6	
440299.80	1148532.60	12.6	
440315.10	1148532.60	14.5	
440315.40	1148532.60	14.6	
440316.30	1148532.60	14.5	
440318.70	1148532.60	14.6	
440324.10	1148532.60	14.6	
440324.40	1148532.60	14.6	
440324.70	1148532.60	14.6	
440325.00	1148532.60	14.6	
440326.50	1148532.60	14.5	
440326.80	1148532.60	14.5	
440327.10	1148532.60	14.5	
440327.40	1148532.60	14.5	
440327.70	1148532.60	14.5	
440328.00	1148532.60	14.5	
440328.30	1148532.60	14.5	
440328.60	1148532.60	14.6	
440328.90	1148532.60	14.6	
440329.20	1148532.60	14.7	
440329.50	1148532.60	14.7	
440329.80	1148532.60	14.8	
440330.10	1148532.60	14.9	
440330.40	1148532.60	14.9	
440330.70	1148532.60	15.0	
440331.00	1148532.60	15.0	
440331.30	1148532.60	15.1	
440331.60	1148532.60	15.1	
440332.20	1148532.60	15.1	
440332.50	1148532.60	15.1	
440333.10	1148532.60	15.1	
440333.40	1148532.60	15.1	
440333.70	1148532.60	15.1	
440334.00	1148532.60	15.0	
440334.30	1148532.60	15.1	
440334.60	1148532.60	15.1	
440334.90	1148532.60	15.1	
440335.20	1148532.60	15.1	
440335.50	1148532.60	15.1	
440336.10	1148532.60	15.1	
440336.70	1148532.60	15.1	
440337.00	1148532.60	15.2	
440337.30	1148532.60	15.1	
440337.90	1148532.60	15.1	
440340.60	1148532.60	15.1	
440355.90	1148532.60	15.8	
440293.50	1148532.90	12.4	
440299.20	1148532.90	12.7	
440316.00	1148532.90	14.5	
440318.70	1148532.90	14.6	
440324.10	1148532.90	14.6	
440340.60	1148532.90	15.1	
440355.90	1148532.90	15.8	
440291.70	1148533.20	12.4	
440292.30	1148533.20	12.4	
440292.60	1148533.20	12.4	
440292.90	1148533.20	12.4	
440299.50	1148533.20	12.7	
440316.00	1148533.20	14.5	
440318.70	1148533.20	14.6	
440324.10	1148533.20	14.6	
440340.60	1148533.20	14.8	
440355.90	1148533.20	15.8	
440299.50	1148533.50	12.6	
440316.00	1148533.50	14.4	
440318.70	1148533.50	14.6	
440324.10	1148533.50	14.6	
440340.60	1148533.50	14.7	
440355.90	1148533.50	15.8	
440299.50	1148533.80	12.6	
440299.80	1148533.80	12.5	
440315.70	1148533.80	14.4	
440316.00	1148533.80	14.4	
440318.70	1148533.80	14.7	
440323.80	1148533.80	14.6	
440340.60	1148533.80	14.6	
440355.90	1148533.80	15.8	
440299.80	1148534.10	12.5	
440315.70	1148534.10	14.4	
440318.70	1148534.10	14.7	
440323.80	1148534.10	14.6	
440340.60	1148534.10	14.6	
440355.90	1148534.10	15.8	
440299.80	1148534.40	12.5	
440300.10	1148534.40	12.5	
440307.60	1148534.40	12.7	
440315.40	1148534.40	14.4	
440315.70	1148534.40	14.5	
440318.70	1148534.40	14.7	
440323.80	1148534.40	14.6	
440340.60	1148534.40	14.6	
440355.00	1148534.40	15.8	
440355.90	1148534.40	15.8	
440300.10	1148534.70	12.5	
440307.60	1148534.70	12.6	
440315.40	1148534.70	14.4	
440323.80	1148534.70	14.6	
440340.60	1148534.70	14.6	
440355.90	1148534.70	15.8	
440299.80	1148535.00	12.4	
440300.10	1148535.00	12.5	
440307.60	1148535.00	12.6	
440315.10	1148535.00	14.4	
440323.80	1148535.00	14.6	
440340.60	1148535.00	14.6	
440355.90	1148535.00	15.8	
440299.50	1148535.30	12.5	
440300.40	1148535.30	12.4	
440307.60	1148535.30	12.6	
440315.10	1148535.30	14.4	
440323.80	1148535.30	14.6	
440340.60	1148535.30	14.6	
440354.70	1148535.30	15.9	
440355.90	1148535.30	15.8	
440299.50	1148535.60	12.5	
440300.40	1148535.60	12.4	
440307.60	1148535.60	12.9	
440315.10	1148535.60	14.4	
440340.60	1148535.60	14.6	
440354.40	1148535.60	16.0	
440355.90	1148535.60	15.8	
440299.50	1148535.90	12.4	
440300.40	1148535.90	12.4	
440314.80	1148535.90	14.5	
440323.50	1148535.90	14.6	
440340.60	1148535.90	14.5	
440355.90	1148535.90	15.8	
440299.50	1148536.20	12.4	
440300.70	1148536.20	12.3	
440307.60	1148536.20	13.5	
440314.50	1148536.20	14.4	
440314.80	1148536.20	14.4	
440318.70	1148536.20	14.6	
440323.50	1148536.20	14.6	
440340.60	1148536.20	14.5	
440355.90	1148536.20	15.8	
440299.50	1148536.50	12.4	
440300.70	1148536.50	12.3	
440307.60	1148536.50	13.8	
440314.50	1148536.50	14.5	
440319.00	1148536.50	14.6	
440323.50	1148536.50	14.6	
440340.60	1148536.50	14.3	
440355.90	1148536.50	15.8	
440299.50	1148536.80	12.4	
440300.70	1148536.80	12.3	
440301.00	1148536.80	12.3	
440307.60	1148536.80	13.7	
440314.20	1148536.80	14.4	
440314.50	1148536.80	14.4	
440319.00	1148536.80	14.6	
440323.50	1148536.80	14.6	
440334.00	1148536.80	14.5	
440340.90	1148536.80	14.3	
440354.10	1148536.80	16.0	
440355.90	1148536.80	15.8	
440299.20	1148537.10	12.3	
440301.00	1148537.10	12.3	
440307.60	1148537.10	13.9	
440314.20	1148537.10	14.4	
440323.50	1148537.10	14.6	
440334.00	1148537.10	14.5	
440340.90	1148537.10	14.3	
440354.10	1148537.10	16.0	
440355.90	1148537.10	15.7	
440299.20	1148537.40	12.3	
440301.30	1148537.40	12.3	
440313.90	1148537.40	14.5	
440314.20	1148537.40	14.4	
440323.20	1148537.40	14.6	
440340.90	1148537.40	14.3	
440353.80	1148537.40	15.9	
440355.90	1148537.40	15.7	
440299.20	1148537.70	12.3	
440301.30	1148537.70	12.3	
440313.90	1148537.70	14.4	
440323.20	1148537.70	14.6	
440331.90	1148537.70	14.6	
440340.90	1148537.70	14.3	
440353.80	1148537.70	15.9	
440355.90	1148537.70	15.7	
440299.20	1148538.00	12.3	
440301.30	1148538.00	12.3	
440301.60	1148538.00	12.3	
440307.90	1148538.00	13.9	
440313.90	1148538.00	14.4	
440331.90	1148538.00	14.6	
440333.70	1148538.00	14.5	
440340.90	1148538.00	14.2	
440353.80	1148538.00	15.9	
440355.90	1148538.00	15.7	
440298.90	1148538.30	12.2	
440301.60	1148538.30	12.3	
440307.90	1148538.30	13.9	
440313.60	1148538.30	14.4	
440323.20	1148538.30	14.6	
440331.90	1148538.30	14.6	
440333.70	1148538.30	14.5	
440353.50	1148538.30	15.8	
440355.90	1148538.30	15.7	
440298.90	1148538.60	12.2	
440301.60	1148538.60	12.3	
440307.90	1148538.60	13.8	
440313.60	1148538.60	14.4	
440323.20	1148538.60	14.6	
440331.60	1148538.60	14.6	
440333.70	1148538.60	14.6	
440353.50	1148538.60	15.5	
440355.90	1148538.60	15.7	
440298.90	1148538.90	12.2	
440301.90	1148538.90	12.8	
440307.90	1148538.90	13.8	
440313.30	1148538.90	14.4	
440323.20	1148538.90	14.6	
440331.60	1148538.90	14.6	
440333.70	1148538.90	14.6	
440353.50	1148538.90	15.4	
440355.90	1148538.90	15.7	
440298.60	1148539.20	12.3	
440307.90	1148539.20	13.8	
440313.00	1148539.20	14.1	
440313.30	1148539.20	14.2	
440323.20	1148539.20	14.6	
440331.60	1148539.20	14.6	
440333.70	1148539.20	14.6	
440353.20	1148539.20	15.4	
440355.90	1148539.20	15.7	
440308.20	1148539.50	13.8	
440313.00	1148539.50	14.1	
440322.90	1148539.50	14.6	
440323.20	1148539.50	14.6	
440331.60	1148539.50	14.6	
440333.70	1148539.50	14.6	
440353.20	1148539.50	15.4	
440355.90	1148539.50	15.7	
440356.20	1148539.50	15.7	
440308.20	1148539.80	13.8	
440312.70	1148539.80	14.2	
440313.00	1148539.80	14.1	
440322.90	1148539.80	14.6	
440331.30	1148539.80	14.6	
440331.60	1148539.80	14.7	
440333.70	1148539.80	14.5	
440353.20	1148539.80	15.4	
440356.20	1148539.80	15.6	
440308.20	1148540.10	14.3	
440312.70	1148540.10	14.1	
440322.90	1148540.10	14.6	
440331.30	1148540.10	14.6	
440333.70	1148540.10	14.6	
440340.90	1148540.10	14.8	
440352.90	1148540.10	15.1	
440356.20	1148540.10	15.7	
440302.50	1148540.40	13.4	
440308.20	1148540.40	14.3	
440312.40	1148540.40	14.2	
440312.70	1148540.40	14.2	
440322.90	1148540.40	14.6	
440331.30	1148540.40	14.6	
440333.70	1148540.40	14.6	
440340.90	1148540.40	14.8	
440356.20	1148540.40	15.6	
440302.50	1148540.70	13.4	
440308.20	1148540.70	14.3	
440312.40	1148540.70	14.2	
440322.90	1148540.70	14.6	
440331.30	1148540.70	14.6	
440333.70	1148540.70	14.6	
440340.90	1148540.70	14.8	
440352.90	1148540.70	15.1	
440356.20	1148540.70	15.6	
440308.50	1148541.00	14.4	
440312.10	1148541.00	14.3	
440331.30	1148541.00	14.6	
440333.70	1148541.00	14.6	
440356.20	1148541.00	15.5	
440302.50	1148541.30	13.5	
440308.50	1148541.30	14.4	
440311.80	1148541.30	14.3	
440312.10	1148541.30	14.3	
440322.90	1148541.30	14.6	
440331.30	1148541.30	14.6	
440333.70	1148541.30	14.6	
440341.20	1148541.30	14.8	
440356.20	1148541.30	15.4	
440308.50	1148541.60	14.5	
440311.80	1148541.60	14.3	
440322.90	1148541.60	14.6	
440331.30	1148541.60	14.6	
440333.70	1148541.60	14.6	
440356.50	1148541.60	15.4	
440308.50	1148541.90	14.5	
440311.50	1148541.90	14.4	
440322.60	1148541.90	14.7	
440331.00	1148541.90	14.5	
440333.70	1148541.90	14.6	
440341.20	1148541.90	14.8	
440356.50	1148541.90	15.3	
440302.80	1148542.20	13.5	
440308.50	1148542.20	14.4	
440308.80	1148542.20	14.5	
440311.50	1148542.20	14.4	
440322.60	1148542.20	14.6	
440331.00	1148542.20	14.5	
440333.70	1148542.20	14.6	
440341.20	1148542.20	14.8	
440356.50	1148542.20	15.3	
440302.80	1148542.50	13.6	
440308.80	1148542.50	14.5	
440311.20	1148542.50	14.6	
440322.60	1148542.50	14.6	
440331.00	1148542.50	14.5	
440333.70	1148542.50	14.5	
440341.20	1148542.50	14.7	
440341.50	1148542.50	14.6	
440356.50	1148542.50	15.3	
440303.10	1148542.80	13.4	
440308.80	1148542.80	14.4	
440310.90	1148542.80	14.6	
440322.60	1148542.80	14.6	
440324.70	1148542.80	14.5	
440331.00	1148542.80	14.5	
440333.70	1148542.80	14.4	
440341.50	1148542.80	14.6	
440356.50	1148542.80	15.3	
440297.70	1148543.10	13.2	
440303.10	1148543.10	13.4	
440308.80	1148543.10	14.5	
440310.90	1148543.10	14.6	
440322.60	1148543.10	14.6	
440324.70	1148543.10	14.5	
440331.00	1148543.10	14.4	
440333.70	1148543.10	14.2	
440341.50	1148543.10	14.6	
440356.50	1148543.10	15.3	
440297.40	1148543.40	13.1	
440303.10	1148543.40	13.9	
440308.80	1148543.40	14.5	
440310.60	1148543.40	14.7	
440322.60	1148543.40	14.6	
440324.70	1148543.40	14.5	
440330.70	1148543.40	14.4	
440331.00	1148543.40	14.4	
440333.70	1148543.40	14.2	
440341.50	1148543.40	14.5	
440356.50	1148543.40	15.3	
440297.40	1148543.70	13.1	
440303.10	1148543.70	13.9	
440309.10	1148543.70	14.5	
440310.60	1148543.70	14.6	
440322.60	1148543.70	14.6	
440324.70	1148543.70	14.5	
440330.70	1148543.70	14.4	
440333.70	1148543.70	14.2	
440341.50	1148543.70	14.5	
440356.50	1148543.70	15.4	
440297.40	1148544.00	13.1	
440303.40	1148544.00	13.9	
440309.10	1148544.00	14.5	
440310.30	1148544.00	14.6	
440322.30	1148544.00	14.6	
440324.70	1148544.00	14.5	
440330.70	1148544.00	14.3	
440333.40	1148544.00	14.2	
440341.50	1148544.00	14.4	
440341.80	1148544.00	14.4	
440297.40	1148544.30	13.1	
440303.40	1148544.30	13.9	
440309.10	1148544.30	14.6	
440310.30	1148544.30	14.6	
440322.30	1148544.30	14.6	
440324.70	1148544.30	14.5	
440330.70	1148544.30	14.3	
440333.40	1148544.30	14.2	
440341.80	1148544.30	14.4	
440297.40	1148544.60	13.1	
440303.40	1148544.60	14.0	
440309.10	1148544.60	14.6	
440310.00	1148544.60	14.6	
440322.30	1148544.60	14.6	
440325.00	1148544.60	14.6	
440330.70	1148544.60	14.3	
440333.40	1148544.60	14.2	
440341.80	1148544.60	14.4	
440297.40	1148544.90	13.1	
440303.40	1148544.90	14.0	
440309.10	1148544.90	14.6	
440310.00	1148544.90	14.6	
440322.30	1148544.90	14.6	
440325.00	1148544.90	14.6	
440330.70	1148544.90	14.2	
440333.40	1148544.90	14.3	
440341.80	1148544.90	14.4	
440297.10	1148545.20	13.1	
440303.40	1148545.20	14.1	
440309.10	1148545.20	14.6	
440309.70	1148545.20	14.6	
440322.30	1148545.20	14.6	
440325.00	1148545.20	14.6	
440330.40	1148545.20	14.2	
440333.40	1148545.20	14.2	
440341.80	1148545.20	14.4	
440303.70	1148545.50	14.2	
440309.10	1148545.50	14.7	
440309.40	1148545.50	14.7	
440309.70	1148545.50	14.6	
440322.30	1148545.50	14.6	
440325.00	1148545.50	14.6	
440330.40	1148545.50	14.2	
440333.10	1148545.50	14.2	
440333.40	1148545.50	14.2	
440342.10	1148545.50	14.5	
440303.70	1148545.80	14.4	
440309.40	1148545.80	14.6	
440309.70	1148545.80	14.6	
440322.30	1148545.80	14.6	
440325.00	1148545.80	14.6	
440330.40	1148545.80	14.2	
440333.10	1148545.80	14.3	
440333.40	1148545.80	14.2	
440342.10	1148545.80	14.5	
440352.30	1148545.80	14.8	
440297.10	1148546.10	13.5	
440303.70	1148546.10	14.4	
440309.40	1148546.10	14.6	
440322.30	1148546.10	14.6	
440325.00	1148546.10	14.6	
440330.40	1148546.10	14.2	
440333.10	1148546.10	14.2	
440333.40	1148546.10	14.2	
440342.10	1148546.10	14.5	
440297.10	1148546.40	13.5	
440303.70	1148546.40	14.4	
440309.10	1148546.40	14.6	
440309.40	1148546.40	14.7	
440322.30	1148546.40	14.6	
440325.00	1148546.40	14.6	
440330.40	1148546.40	14.0	
440333.40	1148546.40	14.2	
440342.10	1148546.40	14.6	
440352.30	1148546.40	14.9	
440296.80	1148546.70	13.6	
440303.70	1148546.70	14.5	
440309.10	1148546.70	14.6	
440309.40	1148546.70	14.7	
440322.30	1148546.70	14.5	
440325.00	1148546.70	14.6	
440325.30	1148546.70	14.6	
440330.40	1148546.70	14.0	
440333.10	1148546.70	14.3	
440333.40	1148546.70	14.0	
440342.40	1148546.70	14.5	
440352.30	1148546.70	14.9	
440296.80	1148547.00	13.6	
440303.70	1148547.00	14.5	
440308.80	1148547.00	14.6	
440309.10	1148547.00	14.6	
440309.40	1148547.00	14.6	
440322.30	1148547.00	14.4	
440325.30	1148547.00	14.6	
440330.40	1148547.00	14.0	
440333.40	1148547.00	14.0	
440342.40	1148547.00	14.6	
440303.70	1148547.30	14.5	
440308.80	1148547.30	14.6	
440309.40	1148547.30	14.7	
440322.30	1148547.30	14.3	
440325.30	1148547.30	14.5	
440330.40	1148547.30	13.8	
440333.40	1148547.30	14.0	
440342.40	1148547.30	14.6	
440352.30	1148547.30	14.9	
440304.00	1148547.60	14.4	
440308.50	1148547.60	14.6	
440308.80	1148547.60	14.6	
440309.40	1148547.60	14.7	
440322.30	1148547.60	14.3	
440325.30	1148547.60	14.5	
440330.40	1148547.60	13.7	
440342.70	1148547.60	14.6	
440304.00	1148547.90	14.4	
440308.50	1148547.90	14.6	
440309.40	1148547.90	14.7	
440319.60	1148547.90	14.1	
440322.30	1148547.90	14.3	
440325.30	1148547.90	14.5	
440330.40	1148547.90	13.6	
440342.70	1148547.90	14.5	
440304.00	1148548.20	14.3	
440308.50	1148548.20	14.6	
440309.40	1148548.20	14.7	
440319.60	1148548.20	14.1	
440322.30	1148548.20	14.3	
440325.30	1148548.20	14.5	
440325.60	1148548.20	14.5	
440330.40	1148548.20	13.6	
440342.70	1148548.20	14.4	
440304.00	1148548.50	14.3	
440308.20	1148548.50	14.6	
440309.40	1148548.50	14.8	
440319.60	1148548.50	14.1	
440322.30	1148548.50	14.3	
440325.60	1148548.50	14.5	
440330.40	1148548.50	13.6	
440343.00	1148548.50	14.4	
440304.00	1148548.80	14.2	
440308.20	1148548.80	14.5	
440309.40	1148548.80	14.7	
440319.60	1148548.80	14.1	
440322.30	1148548.80	14.3	
440325.60	1148548.80	14.4	
440330.40	1148548.80	13.5	
440343.00	1148548.80	14.3	
440304.00	1148549.10	14.2	
440307.90	1148549.10	14.4	
440309.40	1148549.10	14.7	
440319.60	1148549.10	14.1	
440322.30	1148549.10	14.3	
440325.60	1148549.10	14.4	
440330.40	1148549.10	13.5	
440333.40	1148549.10	13.4	
440343.00	1148549.10	14.3	
440304.00	1148549.40	14.2	
440307.90	1148549.40	14.4	
440322.30	1148549.40	14.3	
440325.60	1148549.40	14.3	
440330.40	1148549.40	13.5	
440333.40	1148549.40	13.4	
440343.00	1148549.40	14.3	
440304.00	1148549.70	14.2	
440307.60	1148549.70	14.0	
440309.40	1148549.70	14.4	
440322.30	1148549.70	14.3	
440325.60	1148549.70	14.3	
440330.10	1148549.70	13.5	
440333.40	1148549.70	13.4	
440291.70	1148550.00	13.4	
440292.00	1148550.00	13.5	
440292.30	1148550.00	13.4	
440292.60	1148550.00	13.4	
440292.90	1148550.00	13.4	
440293.20	1148550.00	13.4	
440293.50	1148550.00	13.4	
440293.80	1148550.00	13.4	
440294.10	1148550.00	13.4	
440294.40	1148550.00	13.4	
440294.70	1148550.00	13.4	
440295.00	1148550.00	13.4	
440295.30	1148550.00	13.4	
440295.60	1148550.00	13.3	
440295.90	1148550.00	13.4	
440296.20	1148550.00	13.4	
440296.50	1148550.00	13.4	
440296.80	1148550.00	13.4	
440297.10	1148550.00	13.4	
440297.40	1148550.00	13.4	
440297.70	1148550.00	13.4	
440298.00	1148550.00	13.4	
440298.30	1148550.00	13.4	
440298.60	1148550.00	13.5	
440299.20	1148550.00	14.0	
440299.50	1148550.00	14.1	
440299.80	1148550.00	14.0	
440300.10	1148550.00	14.0	
440307.60	1148550.00	14.0	
440309.40	1148550.00	14.0	
440322.30	1148550.00	14.4	
440325.60	1148550.00	14.2	
440330.10	1148550.00	13.4	
440333.40	1148550.00	13.4	
440300.10	1148550.30	14.0	
440300.40	1148550.30	13.7	
440300.70	1148550.30	13.7	
440301.00	1148550.30	13.7	
440301.30	1148550.30	13.7	
440301.60	1148550.30	13.7	
440301.90	1148550.30	13.7	
440302.20	1148550.30	13.7	
440302.50	1148550.30	13.8	
440302.80	1148550.30	13.9	
440303.10	1148550.30	13.8	
440303.40	1148550.30	13.7	
440303.70	1148550.30	13.7	
440304.00	1148550.30	13.7	
440304.30	1148550.30	13.7	
440304.60	1148550.30	13.6	
440304.90	1148550.30	13.7	
440305.20	1148550.30	13.7	
440305.50	1148550.30	13.7	
440305.80	1148550.30	13.7	
440307.60	1148550.30	14.0	
440309.40	1148550.30	13.9	
440322.30	1148550.30	14.3	
440325.60	1148550.30	13.9	
440330.10	1148550.30	13.3	
440332.50	1148550.30	13.4	
440333.40	1148550.30	13.5	
440303.70	1148550.60	13.9	
440306.10	1148550.60	13.6	
440306.40	1148550.60	13.6	
440306.70	1148550.60	13.5	
440307.00	1148550.60	13.5	
440307.30	1148550.60	13.7	
440307.60	1148550.60	13.5	
440307.90	1148550.60	13.4	
440308.20	1148550.60	13.4	
440308.50	1148550.60	13.5	
440308.80	1148550.60	13.5	
440309.10	1148550.60	13.6	
440309.40	1148550.60	13.7	
440309.70	1148550.60	13.7	
440310.00	1148550.60	13.7	
440310.30	1148550.60	13.7	
440322.30	1148550.60	14.3	
440325.60	1148550.60	13.7	
440330.10	1148550.60	13.3	
440333.40	1148550.60	13.5	
440343.30	1148550.60	14.0	
440303.70	1148550.90	13.8	
440307.30	1148550.90	13.8	
440309.40	1148550.90	13.7	
440310.30	1148550.90	13.7	
440310.60	1148550.90	13.7	
440310.90	1148550.90	13.7	
440311.20	1148550.90	13.7	
440311.50	1148550.90	13.7	
440311.80	1148550.90	13.7	
440312.10	1148550.90	13.7	
440312.40	1148550.90	13.7	
440312.70	1148550.90	13.7	
440313.00	1148550.90	13.7	
440322.30	1148550.90	14.2	
440325.60	1148550.90	13.7	
440330.10	1148550.90	13.2	
440333.40	1148550.90	13.5	
440343.60	1148550.90	14.0	
440352.30	1148550.90	14.8	
440296.20	1148551.20	13.4	
440303.70	1148551.20	13.7	
440307.00	1148551.20	13.8	
440309.40	1148551.20	13.7	
440313.30	1148551.20	13.7	
440313.60	1148551.20	13.8	
440313.90	1148551.20	13.9	
440314.20	1148551.20	13.8	
440314.50	1148551.20	13.9	
440314.80	1148551.20	13.9	
440315.10	1148551.20	14.0	
440322.30	1148551.20	14.2	
440325.60	1148551.20	13.6	
440330.10	1148551.20	13.2	
440333.40	1148551.20	13.5	
440343.60	1148551.20	14.0	
440352.60	1148551.20	14.7	
440295.90	1148551.50	13.5	
440303.70	1148551.50	13.7	
440307.00	1148551.50	13.8	
440309.40	1148551.50	13.7	
440315.10	1148551.50	13.9	
440315.40	1148551.50	13.9	
440315.70	1148551.50	13.9	
440316.00	1148551.50	13.9	
440316.30	1148551.50	13.9	
440316.60	1148551.50	13.9	
440316.90	1148551.50	13.9	
440322.30	1148551.50	14.2	
440325.60	1148551.50	13.5	
440330.10	1148551.50	13.0	
440333.40	1148551.50	13.5	
440343.60	1148551.50	14.1	
440295.90	1148551.80	13.5	
440303.70	1148551.80	13.6	
440307.00	1148551.80	13.8	
440309.40	1148551.80	13.7	
440317.20	1148551.80	13.9	
440317.50	1148551.80	14.0	
440317.80	1148551.80	14.0	
440318.10	1148551.80	14.0	
440318.40	1148551.80	14.0	
440318.70	1148551.80	14.1	
440319.00	1148551.80	14.1	
440319.30	1148551.80	14.2	
440319.60	1148551.80	14.2	
440319.90	1148551.80	14.2	
440320.20	1148551.80	14.1	
440322.30	1148551.80	14.2	
440330.10	1148551.80	13.0	
440333.40	1148551.80	13.5	
440343.60	1148551.80	14.1	
440352.60	1148551.80	14.8	
440295.90	1148552.10	13.5	
440303.70	1148552.10	13.6	
440306.70	1148552.10	13.6	
440309.40	1148552.10	13.7	
440320.80	1148552.10	14.0	
440321.10	1148552.10	13.8	
440321.70	1148552.10	13.7	
440322.00	1148552.10	13.7	
440322.30	1148552.10	14.1	
440322.60	1148552.10	13.3	
440325.60	1148552.10	13.5	
440330.10	1148552.10	13.0	
440333.40	1148552.10	13.4	
440343.60	1148552.10	14.1	
440343.90	1148552.10	14.2	
440352.60	1148552.10	14.8	
440295.60	1148552.40	13.5	
440303.70	1148552.40	13.6	
440306.70	1148552.40	13.5	
440309.40	1148552.40	13.8	
440322.00	1148552.40	14.0	
440322.60	1148552.40	13.2	
440322.90	1148552.40	13.2	
440323.20	1148552.40	13.2	
440323.50	1148552.40	13.2	
440323.80	1148552.40	13.3	
440324.10	1148552.40	13.3	
440324.40	1148552.40	13.3	
440325.60	1148552.40	13.4	
440330.10	1148552.40	13.0	
440332.20	1148552.40	13.3	
440333.40	1148552.40	13.4	
440343.90	1148552.40	14.2	
440352.60	1148552.40	14.8	
440295.60	1148552.70	13.5	
440303.70	1148552.70	13.6	
440306.70	1148552.70	13.5	
440309.40	1148552.70	13.7	
440324.70	1148552.70	13.3	
440325.00	1148552.70	13.3	
440325.30	1148552.70	13.2	
440325.60	1148552.70	13.4	
440325.90	1148552.70	13.3	
440326.20	1148552.70	13.2	
440330.10	1148552.70	13.0	
440332.20	1148552.70	13.3	
440333.40	1148552.70	13.4	
440343.90	1148552.70	14.2	
440352.60	1148552.70	14.7	
440295.60	1148553.00	13.5	
440303.70	1148553.00	13.5	
440306.70	1148553.00	13.5	
440309.40	1148553.00	13.7	
440322.00	1148553.00	14.0	
440325.60	1148553.00	13.4	
440326.50	1148553.00	13.1	
440326.80	1148553.00	13.0	
440327.10	1148553.00	12.9	
440327.40	1148553.00	12.9	
440327.70	1148553.00	12.9	
440328.00	1148553.00	12.9	
440328.30	1148553.00	13.0	
440330.10	1148553.00	13.1	
440333.40	1148553.00	13.4	
440343.90	1148553.00	14.2	
440352.60	1148553.00	14.8	
440295.60	1148553.30	13.5	
440303.70	1148553.30	13.5	
440306.40	1148553.30	13.4	
440309.40	1148553.30	13.6	
440322.00	1148553.30	13.9	
440325.60	1148553.30	13.3	
440328.60	1148553.30	13.0	
440328.90	1148553.30	13.0	
440329.20	1148553.30	13.0	
440329.50	1148553.30	13.0	
440329.80	1148553.30	13.1	
440330.10	1148553.30	13.1	
440330.40	1148553.30	13.2	
440333.40	1148553.30	13.4	
440343.90	1148553.30	14.3	
440344.20	1148553.30	14.2	
440352.60	1148553.30	14.7	
440295.30	1148553.60	13.5	
440303.70	1148553.60	13.5	
440306.40	1148553.60	13.5	
440309.40	1148553.60	13.6	
440322.00	1148553.60	13.6	
440325.60	1148553.60	13.2	
440330.10	1148553.60	13.1	
440330.40	1148553.60	13.2	
440330.70	1148553.60	13.2	
440331.00	1148553.60	13.2	
440331.30	1148553.60	13.4	
440331.60	1148553.60	13.4	
440331.90	1148553.60	13.4	
440332.20	1148553.60	13.5	
440332.50	1148553.60	13.5	
440333.40	1148553.60	13.4	
440344.20	1148553.60	14.2	
440352.60	1148553.60	14.7	
440363.10	1148553.60	16.2	
440363.40	1148553.60	16.3	
440363.70	1148553.60	16.3	
440364.00	1148553.60	16.2	
440364.30	1148553.60	16.2	
440364.60	1148553.60	16.2	
440364.90	1148553.60	16.4	
440365.50	1148553.60	16.4	
440366.10	1148553.60	16.4	
440366.40	1148553.60	16.4	
440366.70	1148553.60	16.3	
440295.30	1148553.90	13.5	
440303.70	1148553.90	13.5	
440306.40	1148553.90	13.4	
440309.40	1148553.90	13.6	
440325.60	1148553.90	13.2	
440330.10	1148553.90	13.1	
440331.90	1148553.90	13.3	
440332.80	1148553.90	13.5	
440333.10	1148553.90	13.6	
440333.40	1148553.90	13.5	
440333.70	1148553.90	13.5	
440334.00	1148553.90	13.6	
440334.30	1148553.90	13.6	
440334.60	1148553.90	13.8	
440334.90	1148553.90	13.8	
440335.20	1148553.90	13.6	
440335.50	1148553.90	13.7	
440335.80	1148553.90	13.7	
440344.20	1148553.90	14.3	
440351.10	1148553.90	14.6	
440351.40	1148553.90	14.6	
440351.70	1148553.90	14.6	
440352.00	1148553.90	14.6	
440352.30	1148553.90	14.6	
440352.60	1148553.90	14.7	
440352.90	1148553.90	14.7	
440353.20	1148553.90	14.7	
440353.50	1148553.90	14.7	
440353.80	1148553.90	14.8	
440354.10	1148553.90	14.7	
440354.40	1148553.90	14.8	
440354.70	1148553.90	14.9	
440355.30	1148553.90	15.0	
440355.90	1148553.90	15.1	
440356.20	1148553.90	15.2	
440356.50	1148553.90	15.3	
440356.80	1148553.90	15.3	
440357.10	1148553.90	15.3	
440357.40	1148553.90	15.3	
440357.70	1148553.90	15.3	
440358.30	1148553.90	15.3	
440358.60	1148553.90	15.3	
440358.90	1148553.90	15.4	
440359.20	1148553.90	15.6	
440359.50	1148553.90	15.5	
440359.80	1148553.90	15.5	
440360.10	1148553.90	15.6	
440360.40	1148553.90	15.6	
440361.00	1148553.90	15.9	
440361.60	1148553.90	16.2	
440361.90	1148553.90	16.2	
440362.20	1148553.90	16.2	
440362.50	1148553.90	16.2	
440362.80	1148553.90	16.2	
440295.30	1148554.20	13.4	
440303.70	1148554.20	13.4	
440306.10	1148554.20	13.4	
440306.40	1148554.20	13.4	
440309.40	1148554.20	13.6	
440325.60	1148554.20	13.0	
440330.10	1148554.20	13.1	
440333.40	1148554.20	13.4	
440336.10	1148554.20	13.8	
440336.40	1148554.20	13.7	
440336.70	1148554.20	13.9	
440337.00	1148554.20	13.8	
440337.30	1148554.20	13.9	
440337.60	1148554.20	13.9	
440337.90	1148554.20	14.0	
440338.20	1148554.20	14.0	
440338.50	1148554.20	14.0	
440338.80	1148554.20	14.1	
440339.10	1148554.20	14.0	
440339.40	1148554.20	14.1	
440339.70	1148554.20	14.1	
440340.30	1148554.20	14.2	
440340.60	1148554.20	14.2	
440341.20	1148554.20	14.3	
440341.80	1148554.20	14.3	
440342.10	1148554.20	14.3	
440342.40	1148554.20	14.3	
440342.70	1148554.20	14.3	
440343.00	1148554.20	14.2	
440343.30	1148554.20	14.3	
440343.60	1148554.20	14.2	
440343.90	1148554.20	14.2	
440344.20	1148554.20	14.2	
440344.50	1148554.20	14.2	
440344.80	1148554.20	14.2	
440345.10	1148554.20	14.1	
440345.40	1148554.20	14.2	
440345.70	1148554.20	14.2	
440346.00	1148554.20	14.3	
440346.30	1148554.20	14.3	
440346.60	1148554.20	14.3	
440346.90	1148554.20	14.3	
440347.20	1148554.20	14.3	
440347.50	1148554.20	14.3	
440347.80	1148554.20	14.3	
440348.10	1148554.20	14.3	
440348.40	1148554.20	14.3	
440348.70	1148554.20	14.3	
440349.00	1148554.20	14.6	
440349.30	1148554.20	14.6	
440349.60	1148554.20	14.6	
440349.90	1148554.20	14.7	
440350.20	1148554.20	14.7	
440350.50	1148554.20	14.6	
440350.80	1148554.20	14.6	
440352.90	1148554.20	14.7	
440295.00	1148554.50	13.5	
440303.70	1148554.50	13.4	
440306.10	1148554.50	13.4	
440309.10	1148554.50	13.5	
440322.00	1148554.50	13.0	
440330.10	1148554.50	13.1	
440333.40	1148554.50	13.4	
440344.20	1148554.50	14.3	
440344.80	1148554.50	14.1	
440352.90	1148554.50	14.7	
440295.00	1148554.80	13.5	
440303.70	1148554.80	13.5	
440306.10	1148554.80	13.4	
440309.10	1148554.80	13.5	
440322.00	1148554.80	12.6	
440325.60	1148554.80	12.5	
440330.10	1148554.80	13.1	
440333.40	1148554.80	13.5	
440344.50	1148554.80	14.4	
440352.90	1148554.80	14.6	
440303.70	1148555.10	13.5	
440306.10	1148555.10	13.4	
440309.10	1148555.10	13.5	
440319.90	1148555.10	12.9	
440322.00	1148555.10	12.5	
440325.60	1148555.10	12.4	
440330.40	1148555.10	13.1	
440333.70	1148555.10	13.5	
440344.50	1148555.10	14.5	
440352.90	1148555.10	14.6	
440303.70	1148555.40	13.5	
440305.80	1148555.40	13.4	
440309.10	1148555.40	13.5	
440319.90	1148555.40	12.9	
440322.00	1148555.40	12.5	
440325.60	1148555.40	12.5	
440333.70	1148555.40	13.4	
440344.50	1148555.40	14.4	
440352.90	1148555.40	14.7	
440303.70	1148555.70	13.5	
440305.80	1148555.70	13.4	
440309.10	1148555.70	13.6	
440319.90	1148555.70	12.8	
440322.30	1148555.70	12.5	
440325.60	1148555.70	12.5	
440330.40	1148555.70	13.2	
440331.60	1148555.70	13.2	
440333.70	1148555.70	13.5	
440344.50	1148555.70	14.4	
440352.90	1148555.70	14.7	
440303.70	1148556.00	13.5	
440305.80	1148556.00	13.4	
440309.10	1148556.00	13.5	
440319.90	1148556.00	12.7	
440322.30	1148556.00	12.4	
440325.60	1148556.00	12.5	
440330.40	1148556.00	13.2	
440333.70	1148556.00	13.5	
440344.80	1148556.00	14.4	
440352.90	1148556.00	14.7	
440353.20	1148556.00	14.7	
440303.70	1148556.30	13.5	
440305.50	1148556.30	13.4	
440305.80	1148556.30	13.4	
440309.10	1148556.30	13.6	
440319.90	1148556.30	12.7	
440322.30	1148556.30	12.4	
440325.60	1148556.30	12.6	
440330.40	1148556.30	13.2	
440333.70	1148556.30	13.5	
440344.80	1148556.30	14.4	
440353.20	1148556.30	14.7	
440303.70	1148556.60	13.5	
440305.50	1148556.60	13.4	
440309.10	1148556.60	13.6	
440319.90	1148556.60	12.9	
440322.30	1148556.60	12.4	
440325.60	1148556.60	12.7	
440330.40	1148556.60	13.2	
440333.70	1148556.60	13.5	
440344.80	1148556.60	14.4	
440353.20	1148556.60	14.8	
440294.40	1148556.90	13.2	
440303.70	1148556.90	13.5	
440305.50	1148556.90	13.4	
440309.10	1148556.90	13.5	
440319.90	1148556.90	13.1	
440322.30	1148556.90	12.3	
440325.60	1148556.90	12.7	
440330.40	1148556.90	13.2	
440331.30	1148556.90	13.2	
440333.70	1148556.90	13.5	
440344.80	1148556.90	14.5	
440345.10	1148556.90	14.5	
440353.20	1148556.90	14.9	
440294.40	1148557.20	13.2	
440303.70	1148557.20	13.4	
440305.50	1148557.20	13.4	
440309.10	1148557.20	13.5	
440319.90	1148557.20	13.2	
440322.30	1148557.20	12.2	
440325.60	1148557.20	12.8	
440330.70	1148557.20	13.3	
440333.70	1148557.20	13.5	
440345.10	1148557.20	14.5	
440353.20	1148557.20	14.9	
440353.50	1148557.20	14.9	
440294.10	1148557.50	13.2	
440304.00	1148557.50	13.4	
440305.50	1148557.50	13.4	
440309.10	1148557.50	13.5	
440320.20	1148557.50	13.2	
440322.30	1148557.50	12.2	
440325.60	1148557.50	12.8	
440325.90	1148557.50	12.8	
440330.70	1148557.50	13.2	
440333.70	1148557.50	13.5	
440345.10	1148557.50	14.5	
440353.50	1148557.50	14.9	
440294.10	1148557.80	13.3	
440304.00	1148557.80	13.4	
440305.50	1148557.80	13.4	
440309.40	1148557.80	13.5	
440320.20	1148557.80	13.1	
440322.30	1148557.80	12.2	
440325.90	1148557.80	12.9	
440333.70	1148557.80	13.5	
440345.10	1148557.80	14.5	
440353.50	1148557.80	14.9	
440294.10	1148558.10	13.2	
440304.00	1148558.10	13.4	
440305.20	1148558.10	13.3	
440305.50	1148558.10	13.4	
440309.40	1148558.10	13.5	
440320.20	1148558.10	13.2	
440322.30	1148558.10	12.1	
440325.90	1148558.10	12.9	
440330.70	1148558.10	13.1	
440334.00	1148558.10	13.5	
440345.10	1148558.10	14.5	
440345.40	1148558.10	14.5	
440353.50	1148558.10	14.9	
440293.80	1148558.40	13.2	
440294.10	1148558.40	13.1	
440304.00	1148558.40	13.4	
440305.20	1148558.40	13.3	
440309.40	1148558.40	13.5	
440320.20	1148558.40	13.1	
440322.60	1148558.40	12.3	
440325.90	1148558.40	12.9	
440330.70	1148558.40	13.2	
440334.00	1148558.40	13.5	
440345.40	1148558.40	14.6	
440353.80	1148558.40	14.9	
440293.80	1148558.70	13.3	
440304.00	1148558.70	13.3	
440305.20	1148558.70	13.3	
440309.40	1148558.70	13.5	
440320.20	1148558.70	13.1	
440322.60	1148558.70	12.2	
440326.20	1148558.70	12.9	
440330.70	1148558.70	13.3	
440334.00	1148558.70	13.6	
440345.40	1148558.70	14.5	
440353.80	1148558.70	14.9	
440293.80	1148559.00	13.3	
440304.00	1148559.00	13.4	
440305.20	1148559.00	13.3	
440309.40	1148559.00	13.6	
440320.20	1148559.00	13.0	
440322.60	1148559.00	12.4	
440326.20	1148559.00	12.8	
440330.70	1148559.00	13.3	
440331.00	1148559.00	13.2	
440334.00	1148559.00	13.5	
440345.40	1148559.00	14.6	
440353.80	1148559.00	14.9	
440293.80	1148559.30	13.3	
440304.00	1148559.30	13.4	
440305.20	1148559.30	13.3	
440309.40	1148559.30	13.6	
440320.20	1148559.30	12.9	
440322.60	1148559.30	12.4	
440326.20	1148559.30	12.7	
440331.00	1148559.30	13.2	
440334.00	1148559.30	13.6	
440345.40	1148559.30	14.5	
440345.70	1148559.30	14.5	
440353.80	1148559.30	14.9	
440354.10	1148559.30	14.9	
440304.00	1148559.60	13.4	
440305.20	1148559.60	13.3	
440309.40	1148559.60	13.6	
440320.20	1148559.60	12.7	
440322.60	1148559.60	12.4	
440326.20	1148559.60	12.6	
440331.00	1148559.60	13.3	
440334.00	1148559.60	13.7	
440345.70	1148559.60	14.5	
440354.10	1148559.60	14.9	
440358.60	1148559.60	15.3	
440304.00	1148559.90	13.4	
440305.20	1148559.90	13.4	
440309.40	1148559.90	13.7	
440320.20	1148559.90	12.7	
440322.60	1148559.90	12.1	
440326.20	1148559.90	12.6	
440331.00	1148559.90	13.3	
440334.00	1148559.90	13.7	
440345.70	1148559.90	14.5	
440354.10	1148559.90	14.9	
440358.60	1148559.90	15.2	
440293.50	1148560.20	13.3	
440304.00	1148560.20	13.4	
440305.20	1148560.20	13.4	
440309.40	1148560.20	13.7	
440309.70	1148560.20	13.7	
440320.20	1148560.20	12.8	
440322.60	1148560.20	12.1	
440326.20	1148560.20	12.6	
440331.00	1148560.20	13.3	
440334.00	1148560.20	13.7	
440345.70	1148560.20	14.5	
440354.10	1148560.20	14.9	
440354.40	1148560.20	14.9	
440293.50	1148560.50	13.3	
440304.00	1148560.50	13.4	
440305.20	1148560.50	13.4	
440309.70	1148560.50	13.7	
440320.20	1148560.50	12.7	
440322.90	1148560.50	12.2	
440326.20	1148560.50	12.6	
440331.00	1148560.50	13.3	
440334.30	1148560.50	13.7	
440345.70	1148560.50	14.5	
440354.40	1148560.50	14.9	
440358.60	1148560.50	15.2	
440293.50	1148560.80	13.3	
440304.00	1148560.80	13.5	
440305.20	1148560.80	13.4	
440309.70	1148560.80	13.6	
440320.20	1148560.80	12.7	
440322.90	1148560.80	12.2	
440326.20	1148560.80	12.6	
440331.30	1148560.80	13.3	
440334.30	1148560.80	13.7	
440345.70	1148560.80	14.6	
440354.40	1148560.80	15.0	
440293.50	1148561.10	13.3	
440304.00	1148561.10	13.5	
440305.20	1148561.10	13.4	
440309.70	1148561.10	13.6	
440320.20	1148561.10	12.6	
440322.90	1148561.10	12.3	
440326.20	1148561.10	12.7	
440331.30	1148561.10	13.3	
440334.30	1148561.10	13.8	
440345.70	1148561.10	14.5	
440354.40	1148561.10	14.9	
440354.70	1148561.10	15.0	
440293.50	1148561.40	13.3	
440304.00	1148561.40	13.5	
440305.20	1148561.40	13.4	
440309.70	1148561.40	13.5	
440322.90	1148561.40	12.4	
440326.20	1148561.40	12.7	
440331.30	1148561.40	13.3	
440334.30	1148561.40	13.8	
440345.70	1148561.40	14.6	
440354.70	1148561.40	15.0	
440293.20	1148561.70	13.2	
440304.00	1148561.70	13.5	
440305.20	1148561.70	13.4	
440309.70	1148561.70	13.4	
440310.00	1148561.70	13.4	
440320.20	1148561.70	12.4	
440322.90	1148561.70	12.4	
440326.20	1148561.70	12.8	
440330.70	1148561.70	13.2	
440331.30	1148561.70	13.4	
440334.30	1148561.70	13.7	
440345.70	1148561.70	14.6	
440346.00	1148561.70	14.6	
440354.70	1148561.70	15.0	
440358.90	1148561.70	15.2	
440293.20	1148562.00	13.3	
440304.00	1148562.00	13.5	
440305.20	1148562.00	13.4	
440310.00	1148562.00	13.4	
440322.90	1148562.00	12.5	
440326.20	1148562.00	12.8	
440331.60	1148562.00	13.4	
440334.60	1148562.00	13.7	
440346.00	1148562.00	14.6	
440354.70	1148562.00	15.0	
440355.00	1148562.00	15.0	
440358.90	1148562.00	15.2	
440304.00	1148562.30	13.5	
440304.90	1148562.30	13.4	
440305.20	1148562.30	13.3	
440310.00	1148562.30	13.4	
440320.20	1148562.30	12.3	
440322.90	1148562.30	12.6	
440326.20	1148562.30	12.9	
440330.70	1148562.30	13.3	
440331.60	1148562.30	13.4	
440334.60	1148562.30	13.7	
440346.00	1148562.30	14.6	
440355.00	1148562.30	15.0	
440358.90	1148562.30	15.2	
440304.00	1148562.60	13.4	
440304.90	1148562.60	13.3	
440310.00	1148562.60	13.3	
440320.20	1148562.60	12.3	
440323.20	1148562.60	12.6	
440326.20	1148562.60	12.9	
440330.70	1148562.60	13.4	
440331.60	1148562.60	13.4	
440334.60	1148562.60	13.7	
440346.00	1148562.60	14.6	
440355.00	1148562.60	15.1	
440355.30	1148562.60	15.1	
440358.90	1148562.60	15.2	
440304.00	1148562.90	13.4	
440304.90	1148562.90	13.3	
440310.00	1148562.90	13.3	
440320.20	1148562.90	12.3	
440323.20	1148562.90	12.6	
440326.20	1148562.90	13.0	
440330.70	1148562.90	13.3	
440331.90	1148562.90	13.5	
440334.60	1148562.90	13.7	
440346.00	1148562.90	14.6	
440355.30	1148562.90	15.1	
440304.00	1148563.20	13.3	
440304.90	1148563.20	13.3	
440310.30	1148563.20	13.3	
440320.20	1148563.20	12.3	
440323.20	1148563.20	12.6	
440326.20	1148563.20	13.0	
440326.50	1148563.20	13.0	
440330.40	1148563.20	13.4	
440331.90	1148563.20	13.6	
440334.60	1148563.20	13.7	
440346.00	1148563.20	14.6	
440355.30	1148563.20	15.1	
440358.90	1148563.20	15.3	
440292.90	1148563.50	12.9	
440304.00	1148563.50	13.1	
440304.90	1148563.50	13.1	
440310.30	1148563.50	13.2	
440320.20	1148563.50	12.3	
440323.20	1148563.50	12.7	
440326.50	1148563.50	13.0	
440330.40	1148563.50	13.4	
440331.90	1148563.50	13.5	
440334.60	1148563.50	13.7	
440346.00	1148563.50	14.6	
440355.30	1148563.50	15.0	
440355.60	1148563.50	15.0	
440358.90	1148563.50	15.3	
440292.90	1148563.80	12.0	
440304.00	1148563.80	12.9	
440304.90	1148563.80	13.0	
440310.30	1148563.80	13.2	
440320.20	1148563.80	12.3	
440323.20	1148563.80	12.7	
440326.50	1148563.80	13.0	
440330.40	1148563.80	13.4	
440332.20	1148563.80	13.6	
440334.60	1148563.80	13.8	
440346.00	1148563.80	14.6	
440355.60	1148563.80	15.0	
440358.90	1148563.80	15.3	
440292.60	1148564.10	12.0	
440304.00	1148564.10	13.0	
440304.90	1148564.10	13.0	
440305.20	1148564.10	12.8	
440310.30	1148564.10	13.2	
440320.20	1148564.10	12.3	
440323.50	1148564.10	12.8	
440326.50	1148564.10	13.0	
440332.20	1148564.10	13.6	
440334.60	1148564.10	13.8	
440334.90	1148564.10	13.8	
440346.00	1148564.10	14.5	
440355.60	1148564.10	15.0	
440358.90	1148564.10	15.3	
440292.60	1148564.40	12.0	
440305.20	1148564.40	12.8	
440310.30	1148564.40	13.3	
440320.20	1148564.40	12.3	
440323.50	1148564.40	12.8	
440326.50	1148564.40	13.0	
440332.20	1148564.40	13.6	
440332.50	1148564.40	13.7	
440334.90	1148564.40	13.8	
440346.00	1148564.40	14.5	
440355.60	1148564.40	15.0	
440358.90	1148564.40	15.3	
440292.60	1148564.70	11.9	
440305.20	1148564.70	12.6	
440310.60	1148564.70	13.3	
440320.20	1148564.70	12.4	
440323.50	1148564.70	12.8	
440326.50	1148564.70	13.1	
440332.50	1148564.70	13.7	
440334.90	1148564.70	13.8	
440346.00	1148564.70	14.5	
440355.60	1148564.70	15.0	
440358.90	1148564.70	15.3	
440292.60	1148565.00	11.9	
440305.20	1148565.00	12.6	
440310.60	1148565.00	13.2	
440320.20	1148565.00	12.4	
440323.50	1148565.00	12.9	
440326.50	1148565.00	13.1	
